-0.31422815 -1.22502220 4.60044147 1.00000000
-0.37057743 -0.00246078 2.76335662 1.00000000
-0.32370027 -0.08424265 4.72830574 1.00000000
-0.36791682 -0.09766829 2.74993136 1.00000000
-0.17773693 0.53263198 2.51662852 1.00000000
-0.27684745 -0.21276907 4.05314085 1.00000000
-0.35458001 0.55806401 2.66165495 1.00000000
-0.54506708 -0.29039848 4.13022500 1.00000000
-0.19507272 0.53336263 2.79769329 1.00000000
-0.31563664 -0.40849488 4.67973444 1.00000000
-0.39158136 0.51500836 2.95699477 1.00000000
-0.61667127 -0.49539408 4.69795855 1.00000000
-0.21670160 0.49004361 3.14987223 1.00000000
-0.31302119 -0.57171873 4.67481352 1.00000000
-0.44245447 0.46738917 3.36223922 1.00000000
-0.61286271 -0.65933764 4.68222250 1.00000000
-0.24439773 0.43487694 3.60104503 1.00000000
-0.31003161 -0.73508041 4.66415215 1.00000000
-0.52873369 -0.71232542 4.03953691 1.00000000
-0.23863184 0.30370117 3.53867667 1.00000000
-0.26630946 -0.77476062 4.01291658 1.00000000
-0.36686565 0.19089469 2.78931539 1.00000000
-0.54855286 -0.89397688 4.20678295 1.00000000
-0.24025139 0.18372235 3.59118086 1.00000000
-0.30296136 -1.06140399 4.62555020 1.00000000
-0.36444652 0.09371111 2.77861446 1.00000000
-0.60008169 -1.15302909 4.62405388 1.00000000
-0.18721858 0.04540196 2.78138093 1.00000000
-0.29889533 -1.22395735 4.59759983 1.00000000
-0.36160483 -0.00247357 2.76454506 1.00000000
-0.25908189 -0.07056526 3.94700077 1.00000000
-0.35885158 -0.09768101 2.75112834 1.00000000
-0.16949380 0.53264767 2.51719374 1.00000000
-0.26343032 -0.21274224 4.05403633 1.00000000
-0.34591711 0.55805192 2.66279744 1.00000000
-0.53197105 -0.29069527 4.13595443 1.00000000
-0.18601955 0.53338027 2.79830630 1.00000000
-0.30204342 -0.41090266 4.70858517 1.00000000
-0.38255695 0.51569013 2.96215002 1.00000000
-0.60088998 -0.49499538 4.69598979 1.00000000
-0.20662617 0.49006369 3.15054600 1.00000000
-0.29838619 -0.57266213 4.68373093 1.00000000
-0.43176161 0.46737522 3.36363074 1.00000000
-0.59731264 -0.65879974 4.68023533 1.00000000
-0.23252575 0.43392475 3.59387149 1.00000000
-0.29512461 -0.73504942 4.66512427 1.00000000
-0.45998720 0.37383022 3.59908718 1.00000000
-0.51540937 -0.71164693 4.03728481 1.00000000
-0.22782078 0.30407271 3.54338039 1.00000000
-0.25505682 -0.77931250 4.03725911 1.00000000
-0.35820430 0.19088343 2.79044167 1.00000000
-0.53534465 -0.89399300 4.20848049 1.00000000
-0.22820225 0.18290718 3.57595535 1.00000000
-0.28852969 -1.06137340 4.62648001 1.00000000
-0.35592497 0.09370020 2.77971935 1.00000000
-0.58526166 -1.15207857 4.62203717 1.00000000
-0.17874120 0.04541934 2.78193845 1.00000000
-0.28472687 -1.22392703 4.59850724 1.00000000
-0.35323094 -0.00248412 2.76562749 1.00000000
-0.24720254 -0.07053992 3.94776311 1.00000000
-0.35062345 -0.09769121 2.75218875 1.00000000
-0.16188323 0.53181739 2.51377355 1.00000000
-0.25112551 -0.21250703 4.05081687 1.00000000
-0.33760703 0.55721067 2.65992215 1.00000000
-0.52154726 -0.29182539 4.15336790 1.00000000
-0.17774957 0.53339773 2.79884058 1.00000000
-0.27270234 -0.38822531 4.45090822 1.00000000
-0.37424056 0.51637432 2.96718441 1.00000000
-0.58623275 -0.49459295 4.69383155 1.00000000
-0.19699659 0.48945792 3.14720101 1.00000000
-0.26639882 -0.53511200 4.37942921 1.00000000
-0.42168397 0.46736372 3.36491067 1.00000000
-0.58257837 -0.65825854 4.67809827 1.00000000
-0.22101323 0.43248543 3.58266197 1.00000000
-0.28062501 -0.73439189 4.66206603 1.00000000
-0.45198766 0.37632696 3.62415613 1.00000000
-0.50252443 -0.71096579 4.03493626 1.00000000
-0.21752247 0.30479426 3.55200991 1.00000000
-0.24304438 -0.78081058 4.04587261 1.00000000
-0.34969181 0.19087376 2.79152191 1.00000000
-0.52229446 -0.89400683 4.21011738 1.00000000
-0.21586654 0.18167428 3.55270911 1.00000000
-0.27389969 -1.06044097 4.62347254 1.00000000
-0.34736833 0.09369066 2.78080183 1.00000000
-0.57079922 -1.15209339 4.62384165 1.00000000
-0.17014101 0.04543837 2.78247727 1.00000000
-0.27005852 -1.22285870 4.59553016 1.00000000
-0.34464237 -0.00249354 2.76671093 1.00000000
-0.27879467 -0.08400776 4.72315506 1.00000000
-0.34152454 -0.09756093 2.74930425 1.00000000
-0.15408229 0.53183476 2.51426021 1.00000000
-0.23838174 -0.21247744 4.05158843 1.00000000
-0.32935142 0.55720187 2.66095863 1.00000000
-0.51036420 -0.29295422 4.17083626 1.00000000
-0.16905570 0.53341748 2.79937537 1.00000000
-0.25093089 -0.37599922 4.31249533 1.00000000
-0.36501482 0.51636488 2.96833506 1.00000000
-0.57095163 -0.49418886 4.69170633 1.00000000
-0.18720184 0.48948061 3.14779524 1.00000000
-0.26611824 -0.56528703 4.62603341 1.00000000
-0.41120149 0.46735346 3.36620922 1.00000000
-0.56732217 -0.65771551 4.67598110 1.00000000
-0.20918410 0.43104854 3.57143784 1.00000000
-0.26587706 -0.73435643 4.66293572 1.00000000
-0.45378138 0.38802398 3.73616283 1.00000000
-0.48928391 -0.71028295 4.03259300 1.00000000
-0.20642826 0.30482065 3.55266962 1.00000000
-0.23128362 -0.78459455 4.06623229 1.00000000
-0.34096336 0.19086529 2.79260186 1.00000000
-0.50801779 -0.89235569 4.20398025 1.00000000
-0.20387886 0.18086250 3.53741154 1.00000000
-0.25921954 -1.06040509 4.62432696 1.00000000
-0.33819028 0.09354274 2.77790619 1.00000000
-0.55564848 -1.15113837 4.62177448 1.00000000
-0.16141872 0.04545908 2.78299661 1.00000000
-0.25543950 -1.22282267 4.59637529 1.00000000
-0.33596018 -0.00250162 2.76777860 1.00000000
-0.25156212 -0.07993793 4.49237458 1.00000000
-0.33288142 -0.09756880 2.75036374 1.00000000
-0.14628102 0.53185342 2.51472201 1.00000000
-0.22542349 -0.21223666 4.04833087 1.00000000
-0.32109264 0.55719443 2.66196959 1.00000000
-0.49861261 -0.29380192 4.18431209 1.00000000
-0.16035888 0.53343867 2.79988294 1.00000000
-0.23358172 -0.36969498 4.24164035 1.00000000
-0.35623896 0.51705161 2.97337010 1.00000000
-0.55569089 -0.49378229 4.68953155 1.00000000
-0.17740605 0.48950490 3.14835871 1.00000000
-0.23894622 -0.53553123 4.38499703 1.00000000
-0.40071501 0.46734494 3.36747490 1.00000000
-0.55208746 -0.65717004 4.67381428 1.00000000
-0.19742540 0.42961339 3.56017519 1.00000000
-0.25092347 -0.73369314 4.65981412 1.00000000
-0.45351261 0.39846807 3.83635950 1.00000000
-0.47606145 -0.70959808 4.03020762 1.00000000
-0.19553752 0.30519777 3.55727399 1.00000000
-0.22019676 -0.79142799 4.10224479 1.00000000
-0.33223224 0.19085825 2.79365456 1.00000000
-0.49557475 -0.89402849 4.21334134 1.00000000
-0.19219561 0.18026194 3.52606323 1.00000000
-0.24453684 -1.06036680 4.62513568 1.00000000
-0.32948936 0.09353590 2.77895189 1.00000000
-0.54095632 -1.15114858 4.62351452 1.00000000
-0.19251794 0.05922361 3.56635586 1.00000000
-0.24081900 -1.22278424 4.59717460 1.00000000
-0.32682095 -0.00250828 2.76484480 1.00000000
-0.19479591 -0.06516670 3.64634495 1.00000000
-0.32378374 -0.09743566 2.74742429 1.00000000
-0.13847777 0.53187336 2.51515960 1.00000000
-0.21270891 -0.21220295 4.04902036 1.00000000
-0.31241909 0.55635668 2.65906307 1.00000000
-0.48909789 -0.29604255 4.21757154 1.00000000
-0.15172257 0.53346111 2.80035996 1.00000000
-0.21954327 -0.36826630 4.22643297 1.00000000
-0.34709017 0.51704529 2.97445306 1.00000000
-0.54062680 -0.49337310 4.68728632 1.00000000
-0.16774389 0.48953043 3.14888442 1.00000000
-0.22589783 -0.53695590 4.39761994 1.00000000
-0.39040690 0.46733827 3.36868617 1.00000000
-0.53759654 -0.65717862 4.67550205 1.00000000
-0.18597071 0.42817916 3.54886192 1.00000000
-0.23651626 -0.73365381 4.66057378 1.00000000
-0.44360493 0.40013344 3.85353619 1.00000000
-0.46363221 -0.70960544 4.03165523 1.00000000
-0.18454135 0.30487806 3.55386854 1.00000000
-0.20983347 -0.80054832 4.14997399 1.00000000
-0.32377037 0.19085281 2.79464832 1.00000000
-0.48351879 -0.89569921 4.22261721 1.00000000
-0.18115954 0.17987159 3.51864611 1.00000000
-0.23038772 -1.06032762 4.62587109 1.00000000
-0.32155987 0.09367029 2.78390511 1.00000000
-0.52641765 -1.15018833 4.62128391 1.00000000
-0.18543617 0.06058588 3.64281899 1.00000000
-0.22664768 -1.22171027 4.59403708 1.00000000
-0.31897835 -0.00251328 2.76978707 1.00000000
-0.18465874 -0.06541438 3.66289064 1.00000000
-0.31559635 -0.09744044 2.74837652 1.00000000
-0.13110680 0.53189336 2.51555055 1.00000000
-0.20065554 -0.21216908 4.04963748 1.00000000
-0.30502493 0.55718388 2.66386067 1.00000000
-0.47998410 -0.29828085 4.25074432 1.00000000
-0.14344596 0.53348395 2.80079176 1.00000000
-0.20647836 -0.36753371 4.21911470 1.00000000
-0.33868932 0.51773519 2.97938668 1.00000000
-0.15835235 0.48955675 3.14936661 1.00000000
-0.21129488 -0.53350796 4.37052677 1.00000000
-0.38031339 0.46733336 3.36984136 1.00000000
-0.52292508 -0.65662811 4.67317930 1.00000000
-0.17510617 0.42772166 3.54543585 1.00000000
-0.22226008 -0.73361263 4.66128214 1.00000000
-0.43195444 0.40012828 3.85485982 1.00000000
-0.45081587 -0.70891622 4.02914386 1.00000000
-0.17356686 0.30456000 3.55042968 1.00000000
-0.31524450 0.19084871 2.79562319 1.00000000
-0.47211579 -0.89903104 4.23965363 1.00000000
-0.17037791 0.17990266 3.51918319 1.00000000
-0.21580878 -1.05938608 4.62268204 1.00000000
-0.31299115 0.09366634 2.78488161 1.00000000
-0.51195928 -1.15019372 4.62290697 1.00000000
-0.17936216 0.06265404 3.75924042 1.00000000
-0.21221232 -1.22166772 4.59473793 1.00000000
-0.30994817 -0.00251707 2.76678674 1.00000000
-0.17288122 -0.06524206 3.65545819 1.00000000
-0.30655880 -0.09730449 2.74537688 1.00000000
-0.12347586 0.53276151 2.51984634 1.00000000
-0.18774056 -0.21192227 4.04625950 1.00000000
-0.29675776 0.55718048 2.66479494 1.00000000
-0.47509595 -0.30386570 4.33158582 1.00000000
-0.13474547 0.53350935 2.80121880 1.00000000
-0.19300873 -0.36714563 4.21576693 1.00000000
-0.32942429 0.51773178 2.98042583 1.00000000
-0.44794807 -0.43024861 4.09323260 1.00000000
-0.14855180 0.48958578 3.14983960 1.00000000
-0.19715656 -0.53249211 4.36324406 1.00000000
-0.36981644 0.46732995 3.37101000 1.00000000
-0.50815492 -0.65663208 4.67480784 1.00000000
-0.16388177 0.42726702 3.54199398 1.00000000
-0.20751500 -0.73356764 4.66196862 1.00000000
-0.42118181 0.40137926 3.86805719 1.00000000
-0.43764104 -0.70822499 4.02663281 1.00000000
-0.16230636 0.30424449 3.54697037 1.00000000
-0.18468658 -0.80428521 4.17083614 1.00000000
-0.30650337 0.19084593 2.79659531 1.00000000
-0.45907685 -0.89986592 4.24502031 1.00000000
-0.15953459 0.18014596 3.52368814 1.00000000
-0.19232961 -1.00987392 4.40916863 1.00000000
-0.30426783 0.09366374 2.78584827 1.00000000
-0.49726394 -1.15019676 4.62450993 1.00000000
-0.16874082 0.06318188 3.78775512 1.00000000
-0.19759630 -1.22162225 4.59540175 1.00000000
-0.30168293 -0.00251949 2.77172411 1.00000000
-0.16189503 -0.06541473 3.66797163 1.00000000
-0.29751305 -0.09716713 2.74235082 1.00000000
-0.11565619 0.53278528 2.52021216 1.00000000
-0.17501150 -0.21188239 4.04683224 1.00000000
-0.28848709 0.55717843 2.66570349 1.00000000
-0.45114406 -0.29689221 4.23383868 1.00000000
-0.12604439 0.53353617 2.80161884 1.00000000
-0.17972246 -0.36710363 4.21635754 1.00000000
-0.32015748 0.51772990 2.98143596 1.00000000
-0.43708279 -0.43234101 4.11440975 1.00000000
-0.13874829 0.48961644 3.15028177 1.00000000
-0.18431915 -0.53537039 4.38765266 1.00000000
-0.35931509 0.46732828 3.37214581 1.00000000
-0.49337748 -0.65663360 4.67639022 1.00000000
-0.15299719 0.42778989 3.54645054 1.00000000
-0.19276895 -0.73352022 4.66260876 1.00000000
-0.40911093 0.40137786 3.86935270 1.00000000
-0.42448864 -0.70753170 4.02407920 1.00000000
-0.15091355 0.30358168 3.53949356 1.00000000
-0.17146888 -0.80424266 4.17140901 1.00000000
-0.29775990 0.19084459 2.79753990 1.00000000
-0.44680297 -0.90236187 4.25813145 1.00000000
-0.14897524 0.18081073 3.53614275 1.00000000
-0.17818383 -1.00892904 4.40587230 1.00000000
-0.29554152 0.09366259 2.78678747 1.00000000
-0.48217240 -1.14922968 4.62220528 1.00000000
-0.15779052 0.06364197 3.81224332 1.00000000
-0.18297821 -1.22157436 4.59601934 1.00000000
-0.29298523 -0.00252048 2.77265719 1.00000000
-0.15022416 -0.06530787 3.66446632 1.00000000
-0.10783661 0.53281032 2.52055355 1.00000000
-0.16227972 -0.21184042 4.04736505 1.00000000
-0.28021359 0.55717775 2.66658599 1.00000000
-0.44340858 -0.30079840 4.29081984 1.00000000
-0.11734074 0.53356443 2.80199138 1.00000000
-0.16672578 -0.36775579 4.22487180 1.00000000
-0.31088681 0.51772956 2.98241681 1.00000000
-0.42529410 -0.43359505 4.12764288 1.00000000
-0.12894495 0.48964870 3.15069329 1.00000000
-0.17954314 -0.56600458 4.63817882 1.00000000
-0.34881022 0.46732834 3.37324872 1.00000000
-0.47859738 -0.65663268 4.67792595 1.00000000
-0.14223279 0.42880267 3.55484072 1.00000000
-0.17801884 -0.73347041 4.66320336 1.00000000
-0.39703510 0.40137847 3.87061019 1.00000000
-0.41174597 -0.70753090 4.02540318 1.00000000
-0.13971304 0.30326966 3.53596259 1.00000000
-0.15825042 -0.80419791 4.17193983 1.00000000
-0.28901215 0.19084472 2.79845693 1.00000000
-0.43329508 -0.90236064 4.25952772 1.00000000
-0.13833950 0.18147756 3.54856541 1.00000000
-0.16405886 -1.00798193 4.40253117 1.00000000
-0.28681297 0.09366288 2.78769937 1.00000000
-0.46748066 -1.14922786 4.62371449 1.00000000
-0.14541608 0.06347174 3.80072747 1.00000000
-0.16835938 -1.22152410 4.59659153 1.00000000
-0.28428461 -0.00252000 2.77356256 1.00000000
-0.13885529 -0.06533781 3.66891728 1.00000000
-0.10001543 0.53283664 2.52087068 1.00000000
-0.14954735 -0.21179634 4.04785771 1.00000000
-0.27193739 0.55717844 2.66744269 1.00000000
-0.45508087 -0.31893238 4.55033641 1.00000000
-0.10863731 0.53359412 2.80233661 1.00000000
-0.15367928 -0.36840555 4.23334533 1.00000000
-0.30161383 0.51773075 2.98336869 1.00000000
-0.41611684 -0.43777364 4.16855856 1.00000000
-0.11913961 0.48968257 3.15107389 1.00000000
-0.15753035 -0.53868399 4.41651742 1.00000000
-0.33830193 0.46733015 3.37431847 1.00000000
-0.46343004 -0.65607260 4.67547290 1.00000000
-0.13141839 0.42981745 3.56319785 1.00000000
-0.16314028 -0.73279294 4.65980239 1.00000000
-0.38495635 0.40138106 3.87183016 1.00000000
-0.39862150 -0.70683336 4.02276571 1.00000000
-0.12840444 0.30261015 3.52841326 1.00000000
-0.14439862 -0.80033749 4.15280651 1.00000000
-0.35777802 0.24749020 3.60565100 1.00000000
-0.42127585 -0.90568367 4.27645990 1.00000000
-0.12775811 0.18235638 3.56494829 1.00000000
-0.14995915 -1.00703277 4.39914572 1.00000000
-0.27808028 0.09366462 2.78858393 1.00000000
-0.45241541 -1.14825603 4.62131466 1.00000000
-0.13337292 0.06344389 3.79716704 1.00000000
-0.15361684 -1.22043660 4.59325548 1.00000000
-0.27558189 -0.00251811 2.77444087 1.00000000
-0.12720669 -0.06522726 3.66533900 1.00000000
-0.09219327 0.53286425 2.52116303 1.00000000
-0.13671076 -0.21154152 4.04431779 1.00000000
-0.26331936 0.55634879 2.66437497 1.00000000
-0.44570068 -0.32255459 4.60338307 1.00000000
-0.09999233 0.53362500 2.80265271 1.00000000
-0.29206401 0.51703884 2.98036031 1.00000000
-0.40684889 -0.44195003 4.20944163 1.00000000
-0.10946862 0.48971755 3.15141931 1.00000000
-0.14595035 -0.54739768 4.48842362 1.00000000
-0.32797304 0.46733362 3.37533753 1.00000000
-0.44893467 -0.65606696 4.67688822 1.00000000
-0.12090664 0.43132134 3.57548210 1.00000000
-0.14873367 -0.73273959 4.66029290 1.00000000
-0.37316636 0.40138552 3.87298363 1.00000000
-0.38621580 -0.70682852 4.02397671 1.00000000
-0.11768963 0.30264955 3.52878339 1.00000000
-0.13151391 -0.79952745 4.14931484 1.00000000
-0.34722697 0.24777347 3.61069076 1.00000000
-0.40996475 -0.90983628 4.29721237 1.00000000
-0.11746592 0.18323595 3.58128641 1.00000000
-0.13638993 -1.00608331 4.39569973 1.00000000
-0.26968031 0.09366765 2.78940863 1.00000000
-0.43831324 -1.14824969 4.62267524 1.00000000
-0.12173308 0.06334562 3.78955438 1.00000000
-0.13964135 -1.22038404 4.59371600 1.00000000
-0.26726896 -0.00251495 2.77525402 1.00000000
-0.11682944 -0.06553230 3.68569195 1.00000000
-0.08480543 0.53289152 2.52141642 1.00000000
-0.12467171 -0.21149595 4.04470885 1.00000000
-0.25548059 0.55635200 2.66513733 1.00000000
-0.42285475 -0.31557243 4.50535354 1.00000000
-0.09170978 0.53365592 2.80293000 1.00000000
-0.28321527 0.51704284 2.98121350 1.00000000
-0.39882841 -0.44737866 4.26215320 1.00000000
-0.10007052 0.48975304 3.15172622 1.00000000
-0.31786054 0.46733864 3.37630416 1.00000000
-0.43433470 -0.65550242 4.67428935 1.00000000
-0.11058565 0.43331486 3.59169926 1.00000000
-0.13447771 -0.73268451 4.66073453 1.00000000
-0.36109901 0.40097366 3.87013098 1.00000000
-0.37349549 -0.70612717 4.02122254 1.00000000
-0.10686547 0.30234141 3.52513745 1.00000000
-0.11870700 -0.79947791 4.14971047 1.00000000
-0.33728516 0.24861664 3.62365545 1.00000000
-0.39838798 -0.91398677 4.31794967 1.00000000
-0.10691814 0.18411821 3.59759968 1.00000000
-0.12260199 -1.00513076 4.39221879 1.00000000
-0.26109422 0.09367211 2.79022536 1.00000000
-0.42350510 -1.14727312 4.62015981 1.00000000
-0.10928726 0.06289796 3.76192573 1.00000000
-0.12520651 -1.22032744 4.59414723 1.00000000
-0.25865088 -0.00251028 2.77607028 1.00000000
-0.10564237 -0.06569489 3.69803378 1.00000000
-0.07698107 0.53292163 2.52166112 1.00000000
-0.11194599 -0.21144579 4.04508397 1.00000000
-0.24686378 0.55552504 2.66201896 1.00000000
-0.41532903 -0.32086392 4.58218487 1.00000000
-0.08300355 0.53368981 2.80319484 1.00000000
-0.12546700 -0.40792239 4.68873825 1.00000000
-0.27394539 0.51704853 2.98207864 1.00000000
-0.40903703 -0.47579918 4.53286497 1.00000000
-0.09026209 0.48979164 3.15201642 1.00000000
-0.11684583 -0.54047361 4.43368652 1.00000000
-0.30699671 0.46678878 3.37333070 1.00000000
-0.41956052 -0.65549186 4.67563964 1.00000000
-0.09968038 0.43482392 3.60392816 1.00000000
-0.11964410 -0.73200019 4.65719669 1.00000000
-0.34902002 0.40098212 3.87123822 1.00000000
-0.36076323 -0.70611809 4.02238647 1.00000000
-0.09595069 0.30273473 3.52943408 1.00000000
-0.10546738 -0.79866244 4.14615075 1.00000000
-0.32561113 0.24834565 3.62071607 1.00000000
-0.38907126 -0.92478755 4.36986863 1.00000000
-0.09584865 0.18458356 3.60590137 1.00000000
-0.10857169 -1.00417502 4.38870204 1.00000000
-0.25235441 0.09367809 2.79102927 1.00000000
-0.40882154 -1.14726176 4.62148526 1.00000000
-0.09758736 0.06301622 3.76624741 1.00000000
-0.11050933 -1.21923328 4.59067522 1.00000000
-0.24994042 -0.00250416 2.77686824 1.00000000
-0.09465683 -0.06613136 3.72633670 1.00000000
-0.32938548 -0.13120332 3.71928591 1.00000000
-0.06906709 0.53210699 2.51797261 1.00000000
-0.09913409 -0.21118490 4.04142511 1.00000000
-0.23860241 0.55553110 2.66277092 1.00000000
-0.40360238 -0.32308378 4.61527844 1.00000000
-0.07429591 0.53372512 2.80343254 1.00000000
-0.11068842 -0.40786110 4.68911559 1.00000000
-0.26467285 0.51705574 2.98291485 1.00000000
-0.39440071 -0.47536887 4.53016970 1.00000000
-0.08036664 0.48920549 3.14832639 1.00000000
-0.10793960 -0.57059376 4.68014490 1.00000000
-0.29648831 0.46679742 3.37426951 1.00000000
-0.40445004 -0.65492222 4.67299724 1.00000000
-0.08853037 0.43535866 3.60818495 1.00000000
-0.10491152 -0.73193850 4.65756154 1.00000000
-0.33693945 0.40099258 3.87230732 1.00000000
-0.34769773 -0.70541231 4.01958480 1.00000000
-0.08484338 0.30243122 3.52572884 1.00000000
-0.09240623 -0.79936978 4.15040012 1.00000000
-0.31428990 0.24835557 3.62171565 1.00000000
-0.37715793 -0.92976445 4.39447761 1.00000000
-0.08464685 0.18484089 3.61017491 1.00000000
-0.09456294 -1.00321723 4.38514136 1.00000000
-0.24361274 0.09368553 2.79180538 1.00000000
-0.39381232 -1.14628039 4.61889664 1.00000000
-0.08530540 0.06264256 3.74254220 1.00000000
-0.09590801 -1.21917124 4.59101957 1.00000000
-0.24122617 -0.00249658 2.77763883 1.00000000
-0.08388014 -0.06691039 3.77460028 1.00000000
-0.31638141 -0.13063409 3.70436624 1.00000000
-0.06117612 0.53129358 2.51425917 1.00000000
-0.08642073 -0.21113060 4.04171946 1.00000000
-0.23001655 0.55470683 2.65959783 1.00000000
-0.39037128 -0.32418512 4.63243489 1.00000000
-0.06558753 0.53376187 2.80364278 1.00000000
-0.09591101 -0.40779741 4.68944685 1.00000000
-0.25507698 0.51636981 2.97979543 1.00000000
-0.37881811 -0.47368215 4.51553336 1.00000000
-0.07056893 0.48924725 3.14855489 1.00000000
-0.09344094 -0.57247648 4.69634866 1.00000000
-0.28597699 0.46680780 3.37517511 1.00000000
-0.38936048 -0.65435023 4.67030619 1.00000000
-0.07735307 0.43589531 3.61240678 1.00000000
-0.09011306 -0.73124942 4.65392950 1.00000000
-0.32485558 0.40100503 3.87333846 1.00000000
-0.33496988 -0.70539904 4.02066782 1.00000000
-0.07397372 0.30317768 3.53394056 1.00000000
-0.07925289 -0.79931248 4.15068325 1.00000000
-0.30168562 0.24725099 3.60676994 1.00000000
-0.36446662 -0.93307575 4.41125538 1.00000000
-0.07328143 0.18467988 3.60642533 1.00000000
-0.08058006 -1.00225714 4.38153632 1.00000000
-0.23454812 0.09355472 2.78856959 1.00000000
-0.37913190 -1.14626420 4.62012887 1.00000000
-0.07317392 0.06227015 3.71879723 1.00000000
-0.08124446 -1.21807240 4.58745544 1.00000000
-0.23219313 -0.00248763 2.77439437 1.00000000
-0.07267213 -0.06754815 3.81483499 1.00000000
-0.30568314 -0.13103980 3.71729853 1.00000000
-0.05337524 0.53132742 2.51442982 1.00000000
-0.07366585 -0.21086582 4.03797991 1.00000000
-0.22179154 0.55471557 2.66029449 1.00000000
-0.37617240 -0.32444720 4.63761422 1.00000000
-0.05687509 0.53303568 2.79989858 1.00000000
-0.08120091 -0.40738410 4.68574491 1.00000000
-0.24590791 0.51637997 2.98056426 1.00000000
-0.36443452 -0.47324745 4.51272726 1.00000000
-0.06090661 0.48929003 3.14874976 1.00000000
-0.07867299 -0.57095102 4.68471498 1.00000000
-0.27533622 0.46626297 3.37208413 1.00000000
-0.37488154 -0.65433276 4.67149282 1.00000000
-0.06626584 0.43545635 3.60865076 1.00000000
-0.07572504 -0.73118451 4.65419637 1.00000000
-0.31306123 0.40101909 3.87430829 1.00000000
-0.32226696 -0.70468960 4.01775669 1.00000000
-0.06341887 0.30427423 3.54609745 1.00000000
-0.06659376 -0.80077955 4.15877100 1.00000000
-0.28921974 0.24586859 3.58777474 1.00000000
-0.34823091 -0.92557495 4.37724666 1.00000000
-0.06238901 0.18472899 3.60662788 1.00000000
-0.06707645 -1.00039834 4.37398118 1.00000000
-0.22584047 0.09342492 2.78527738 1.00000000
-0.36473758 -1.14527869 4.61739854 1.00000000
-0.06265940 0.06316898 3.76698772 1.00000000
-0.06723974 -1.21697415 4.58383453 1.00000000
-0.22388052 -0.00247770 2.77507749 1.00000000
-0.06195901 -0.06839230 3.86702377 1.00000000
-0.29491102 -0.13116528 3.72217939 1.00000000
-0.04595235 0.53051442 2.51065929 1.00000000
-0.06164606 -0.21081062 4.03818412 1.00000000
-0.21396485 0.55472514 2.66093349 1.00000000
-0.36200143 -0.32414989 4.63474061 1.00000000
-0.04860022 0.53307326 2.80004722 1.00000000
-0.06702941 -0.40662347 4.67800476 1.00000000
-0.23676097 0.51569651 2.97735122 1.00000000
-0.05151595 0.48933308 3.14891082 1.00000000
-0.06438286 -0.56991182 4.67700006 1.00000000
-0.26523281 0.46627621 3.37289203 1.00000000
-0.36036024 -0.65375674 4.66866543 1.00000000
-0.05535661 0.43501826 3.60485807 1.00000000
-0.06144543 -0.73049312 4.65046528 1.00000000
-0.27817428 0.36841477 3.56581191 1.00000000
-0.30991977 -0.70467276 4.01873124 1.00000000
-0.05288432 0.30607194 3.56619172 1.00000000
-0.05392008 -0.80376892 4.17467470 1.00000000
-0.27649750 0.24420876 3.56476364 1.00000000
-0.33235242 -0.91890353 4.34709320 1.00000000
-0.05133926 0.18478058 3.60679956 1.00000000
-0.05341777 -0.99943542 4.37028651 1.00000000
-0.21785860 0.09371576 2.79393217 1.00000000
-0.35029160 -1.14525811 4.61852185 1.00000000
-0.05050642 0.06237478 3.71917228 1.00000000
-0.05283759 -1.21690605 4.58404159 1.00000000
-0.21496988 -0.00246613 2.77177037 1.00000000
-0.28412634 -0.13156709 3.73504583 1.00000000
-0.03816212 0.53055069 2.51078213 1.00000000
-0.04890373 -0.21054185 4.03436665 1.00000000
-0.20570628 0.55473657 2.66158221 1.00000000
-0.34740593 -0.32412823 4.63585906 1.00000000
-0.03986267 0.53234999 2.79625083 1.00000000
-0.05228723 -0.40655282 4.67819873 1.00000000
-0.22750321 0.51570973 2.97807072 1.00000000
-0.04167806 0.48875284 3.14509791 1.00000000
-0.04954953 -0.56886764 4.66924744 1.00000000
-0.25444140 0.46573486 3.36974889 1.00000000
-0.34532144 -0.65317768 4.66583354 1.00000000
-0.04411783 0.43507209 3.60500653 1.00000000
-0.04673672 -0.73042205 4.65064758 1.00000000
-0.26676046 0.36801322 3.56269282 1.00000000
-0.29719586 -0.70465332 4.01969559 1.00000000
-0.04198579 0.30857259 3.59422664 1.00000000
-0.04082902 -0.80751624 4.19446988 1.00000000
-0.26393409 0.24283003 3.54570855 1.00000000
-0.31607875 -0.91139828 4.31300420 1.00000000
-0.04008561 0.18504543 3.61093419 1.00000000
-0.03951879 -0.99846905 4.36655199 1.00000000
-0.20910669 0.09372888 2.79460042 1.00000000
-0.33534195 -1.14426730 4.61574598 1.00000000
-0.03860919 0.06186500 3.68731740 1.00000000
-0.03823267 -1.21580030 4.58034108 1.00000000
-0.04374069 -0.08320751 4.73518830 1.00000000
-0.27294227 -0.13182734 3.74389699 1.00000000
-0.03040165 0.53143450 2.51478988 1.00000000
-0.03621292 -0.21047948 4.03450397 1.00000000
-0.19744635 0.55474936 2.66220497 1.00000000
-0.31126671 -0.30235036 4.32643721 1.00000000
-0.03117679 0.53239224 2.79635314 1.00000000
-0.03752094 -0.40613217 4.67436192 1.00000000
-0.21824324 0.51572448 2.97876101 1.00000000
-0.30428083 -0.44559740 4.25400317 1.00000000
-0.03189060 0.48880086 3.14520515 1.00000000
-0.03476816 -0.56782148 4.66145009 1.00000000
-0.24394510 0.46575203 3.37052268 1.00000000
-0.33057463 -0.65315272 4.66690469 1.00000000
-0.03287953 0.43512775 3.60511974 1.00000000
-0.03202532 -0.73034855 4.65078373 1.00000000
-0.25509815 0.36719524 3.55556865 1.00000000
-0.28446805 -0.70463178 4.02062012 1.00000000
-0.03093449 0.31142566 3.62621254 1.00000000
-0.02766120 -0.81354737 4.22600458 1.00000000
-0.25176220 0.24173205 3.53059122 1.00000000
-0.30134256 -0.90804867 4.29837516 1.00000000
-0.02884663 0.18573300 3.62302212 1.00000000
-0.02564198 -0.99750050 4.36277348 1.00000000
-0.20143415 0.09430241 2.81119466 1.00000000
-0.32067201 -1.14424160 4.61679468 1.00000000
-0.02698154 0.06163954 3.67142210 1.00000000
-0.02366472 -1.21572666 4.58045927 1.00000000
-0.28183447 -0.00239181 4.02623461 1.00000000
-0.02885600 -0.08306334 4.73130471 1.00000000
-0.26170711 -0.13208556 3.75271451 1.00000000
-0.02258069 0.53062707 2.51095442 1.00000000
-0.02352077 -0.21041502 4.03460121 1.00000000
-0.18918326 0.55476351 2.66280197 1.00000000
-0.28182592 -0.28559352 4.08850431 1.00000000
-0.02249062 0.53243591 2.79642818 1.00000000
-0.02277935 -0.40570920 4.67047847 1.00000000
-0.20898187 0.51574074 2.97942248 1.00000000
-0.29112224 -0.44599092 4.25891404 1.00000000
-0.02210359 0.48885050 3.14528146 1.00000000
-0.02003537 -0.56677301 4.65360454 1.00000000
-0.23344482 0.46577094 3.37126361 1.00000000
-0.31582457 -0.65312537 4.66793021 1.00000000
-0.02163926 0.43518525 3.60519797 1.00000000
-0.01731578 -0.73027266 4.65087371 1.00000000
-0.24426190 0.36763383 3.56031457 1.00000000
-0.27173836 -0.70460815 4.02150464 1.00000000
-0.01970344 0.31498109 3.66613314 1.00000000
-0.01429299 -0.81957517 4.25749762 1.00000000
-0.24046578 0.24147327 3.52737778 1.00000000
-0.28720479 -0.90636000 4.29150571 1.00000000
-0.01179230 -0.99742858 4.36284922 1.00000000
-0.19314400 0.09459803 2.81978968 1.00000000
-0.30575269 -1.14324597 4.61392418 1.00000000
-0.00909532 -1.21565059 4.58053117 1.00000000
-0.26920200 -0.00236765 4.02709885 1.00000000
-0.01399620 -0.08291685 4.72737399 1.00000000
-0.25041740 -0.13234171 3.76149802 1.00000000
-0.01479613 0.53151356 2.51491323 1.00000000
-0.01082837 -0.21034849 4.03465874 1.00000000
-0.18091960 0.55477902 2.66337294 1.00000000
-0.26869975 -0.28528941 4.08539065 1.00000000
-0.01380428 0.53248100 2.79647595 1.00000000
-0.00806003 -0.40563144 4.67053357 1.00000000
-0.19971702 0.51575855 2.98005439 1.00000000
-0.27818213 -0.44680011 4.26775496 1.00000000
-0.01231637 0.48890175 3.14532691 1.00000000
-0.00534266 -0.56669510 4.65365398 1.00000000
-0.22319223 0.46634846 3.37592453 1.00000000
-0.30082694 -0.65253904 4.66495514 1.00000000
-0.01040047 0.43524460 3.60524062 1.00000000
-0.00260494 -0.73019435 4.65091739 1.00000000
-0.23265582 0.36681939 3.55311674 1.00000000
-0.25900403 -0.70458242 4.02234942 1.00000000
-0.00823380 0.31714052 3.69007962 1.00000000
-0.00074449 -0.82407566 4.28109558 1.00000000
-0.22919109 0.24121624 3.52412805 1.00000000
-0.27478629 -0.91048939 4.31192784 1.00000000
0.00207037 -0.99825308 4.36677959 1.00000000
-0.23356413 0.12271453 3.62237841 1.00000000
-0.29108769 -1.14321545 4.61487995 1.00000000
-0.00398762 0.06154768 3.65951919 1.00000000
0.00547413 -1.21557218 4.58055807 1.00000000
-0.25607940 -0.00234185 4.01993905 1.00000000
0.00083759 -0.08276806 4.72339648 1.00000000
-0.00699228 0.53155500 2.51493839 1.00000000
0.00184103 -0.21028001 4.03467650 1.00000000
-0.17268180 0.55479583 2.66391629 1.00000000
-0.25590194 -0.28526224 4.08621433 1.00000000
-0.00517844 0.53252720 2.79649629 1.00000000
0.00653093 -0.40555198 4.67054262 1.00000000
-0.19054874 0.51577766 2.98065148 1.00000000
-0.26488286 -0.44677151 4.26860406 1.00000000
-0.00266356 0.48895384 3.14534195 1.00000000
0.00908475 -0.56564359 4.64571744 1.00000000
-0.21285882 0.46637043 3.37658903 1.00000000
-0.28636525 -0.65250750 4.66586991 1.00000000
0.00060551 0.43530448 3.60524849 1.00000000
0.01177324 -0.73011552 4.65091604 1.00000000
-0.22160201 0.36642435 3.54983484 1.00000000
-0.24683077 -0.70524968 4.02706596 1.00000000
0.00310580 0.32035048 3.72594408 1.00000000
0.01248580 -0.82628934 4.29287215 1.00000000
-0.21875283 0.24151873 3.52878775 1.00000000
-0.26314628 -0.91628009 4.34009877 1.00000000
-0.00094010 0.11704834 2.31695138 1.00000000
0.01549877 -1.00087501 4.37846233 1.00000000
-0.22288544 0.12287838 3.62705512 1.00000000
-0.27700752 -1.14318388 4.61575414 1.00000000
0.00716275 0.06217674 3.69150801 1.00000000
0.01941120 -1.21549492 4.58054053 1.00000000
-0.24519217 -0.00231376 4.04065459 1.00000000
0.01490433 -0.08255254 4.71537606 1.00000000
-0.24389995 -0.14232607 4.05031349 1.00000000
0.00037692 0.53159530 2.51493965 1.00000000
0.01382686 -0.21000510 4.03066173 1.00000000
-0.16484518 0.55481308 2.66440910 1.00000000
-0.24368174 -0.28523434 4.08696342 1.00000000
0.00308613 0.53257277 2.79649063 1.00000000
-0.18169939 0.51579751 2.98120070 1.00000000
-0.25222518 -0.44715960 4.27335886 1.00000000
0.00671596 0.48900598 3.14532755 1.00000000
-0.20274210 0.46639358 3.37720824 1.00000000
-0.27215595 -0.65247421 4.66672464 1.00000000
0.01145451 0.43536524 3.60522288 1.00000000
0.02599843 -0.73003523 4.65087085 1.00000000
-0.21064591 0.36603086 3.54651419 1.00000000
-0.23467452 -0.70591507 4.03174384 1.00000000
0.01452867 0.32181384 3.74185037 1.00000000
0.02590358 -0.83002408 4.31246034 1.00000000
-0.20821047 0.24182315 3.53342081 1.00000000
-0.25054898 -0.91957378 4.35652767 1.00000000
0.00621843 0.11750909 2.32492987 1.00000000
0.02931248 -1.00529021 4.39789928 1.00000000
-0.21172178 0.12290471 3.62772332 1.00000000
-0.26256739 -1.14314922 4.61660680 1.00000000
0.01879818 0.06273936 3.71946160 1.00000000
0.03380368 -1.21541286 4.58047893 1.00000000
-0.23198969 -0.00228448 4.02941416 1.00000000
0.02957466 -0.08239998 4.71130859 1.00000000
-0.22991048 -0.14145939 4.02710805 1.00000000
0.00818019 0.53163924 2.51491687 1.00000000
0.02650565 -0.20993255 4.03060243 1.00000000
-0.15657661 0.55483259 2.66490373 1.00000000
-0.23081272 -0.28520289 4.08771271 1.00000000
0.01177186 0.53262203 2.79645837 1.00000000
-0.17242914 0.51581981 2.98174723 1.00000000
-0.23874386 -0.44712628 4.27413660 1.00000000
0.01650459 0.48906193 3.14528289 1.00000000
-0.19222196 0.46641933 3.37781983 1.00000000
-0.25740796 -0.65243730 4.66756656 1.00000000
0.02265600 0.43494112 3.60119182 1.00000000
0.04066497 -0.72932545 4.64682755 1.00000000
-0.19936794 0.36563993 3.54317925 1.00000000
-0.22211460 -0.70657737 4.03640573 1.00000000
0.02982797 0.35373156 4.10436692 1.00000000
0.03961395 -0.83070650 4.31629866 1.00000000
-0.19737330 0.24213007 3.53803746 1.00000000
-0.23814563 -0.92535826 4.38465961 1.00000000
0.01357712 0.11797212 2.33288512 1.00000000
0.04361315 -1.01149761 4.42508486 1.00000000
-0.20056853 0.12307326 3.63235917 1.00000000
-0.24789534 -1.14311161 4.61742733 1.00000000
0.04837164 -1.21532742 4.58037065 1.00000000
-0.19973664 -0.00228018 3.65062865 1.00000000
0.04432074 -0.08224457 4.70719449 1.00000000
-0.21623118 -0.14073027 4.00785065 1.00000000
0.01585740 0.52914437 2.50314251 1.00000000
0.03913538 -0.20965000 4.02650882 1.00000000
-0.14810410 0.55402153 2.66146520 1.00000000
-0.21814106 -0.28544805 4.09240690 1.00000000
0.02036903 0.53114352 2.78854680 1.00000000
0.05015421 -0.40634287 4.68225560 1.00000000
-0.16315863 0.51584362 2.98226481 1.00000000
-0.22506217 -0.44667299 4.27089906 1.00000000
0.02629160 0.48911949 3.14520718 1.00000000
0.02020655 -0.27669082 2.28728650 1.00000000
-0.18150017 0.46588981 3.37444242 1.00000000
-0.24245898 -0.65184162 4.66440635 1.00000000
0.03393330 0.43549659 3.60506553 1.00000000
0.05536271 -0.72923773 4.64668934 1.00000000
-0.18811192 0.36525067 3.53980776 1.00000000
-0.20914223 -0.70584904 4.03316047 1.00000000
0.04264576 0.35380803 4.10424706 1.00000000
0.05346713 -0.83291005 4.32794630 1.00000000
-0.18650926 0.24243884 3.54262029 1.00000000
-0.22461681 -0.92698334 4.39321694 1.00000000
0.02109606 0.11885828 2.34880559 1.00000000
0.05814509 -1.01859999 4.45612170 1.00000000
-0.18899603 0.12296392 3.62897593 1.00000000
-0.23303544 -1.14210414 4.61432459 1.00000000
0.02695919 0.04398431 2.65954544 1.00000000
0.06300283 -1.21627349 4.58408060 1.00000000
-0.18828293 -0.00224916 3.65123733 1.00000000
0.05910316 -0.08215520 4.70703358 1.00000000
-0.20478383 -0.14153127 4.03246939 1.00000000
0.02340702 0.52580366 2.48743558 1.00000000
0.05177988 -0.20957349 4.02636979 1.00000000
-0.13987353 0.55404365 2.66190581 1.00000000
-0.20569982 -0.28596991 4.10104441 1.00000000
0.02897082 0.53119512 2.78846095 1.00000000
0.06484598 -0.40660086 4.68606771 1.00000000
-0.15398224 0.51586868 2.98274833 1.00000000
-0.21193905 -0.44705349 4.27555722 1.00000000
0.03594309 0.48917780 3.14510286 1.00000000
0.02724807 -0.27616232 2.28324770 1.00000000
-0.17117143 0.46591846 3.37497834 1.00000000
-0.22799934 -0.65180071 4.66514135 1.00000000
0.04493676 0.43556356 3.60493717 1.00000000
0.06972749 -0.72914968 4.64650990 1.00000000
-0.17733432 0.36528088 3.54036094 1.00000000
-0.19688582 -0.70650802 4.03772678 1.00000000
0.06691778 -0.83435176 4.33562934 1.00000000
-0.17577994 0.24246913 3.54316672 1.00000000
-0.21114122 -0.92694479 4.39389353 1.00000000
0.02825684 0.11911205 2.35272287 1.00000000
0.07221156 -1.02390558 4.47932501 1.00000000
-0.17843123 0.12327494 3.63751436 1.00000000
-0.21895520 -1.14206349 4.61502450 1.00000000
0.03501762 0.04410433 2.66345040 1.00000000
0.07695024 -1.21618720 4.58389082 1.00000000
-0.19462510 -0.00218286 4.03139164 1.00000000
0.06300082 -0.07237826 4.13901136 1.00000000
-0.19330810 -0.14191408 4.04504385 1.00000000
0.03030340 0.52076722 2.46389398 1.00000000
0.06374234 -0.20949922 4.02620216 1.00000000
-0.13207050 0.55406588 2.66229956 1.00000000
-0.19403491 -0.28677007 4.11359900 1.00000000
-0.14522324 0.51589399 2.98318343 1.00000000
-0.19902663 -0.44659815 4.27219956 1.00000000
0.04518646 0.48923511 3.14497480 1.00000000
-0.16124243 0.46594759 3.37546315 1.00000000
-0.21407572 -0.65175911 4.66580661 1.00000000
0.05555090 0.43562984 3.60478105 1.00000000
0.08360878 -0.72906241 4.64629450 1.00000000
-0.16672480 0.36489329 3.53689062 1.00000000
-0.18464261 -0.70577779 4.03436849 1.00000000
0.08005688 -0.83579327 4.34327724 1.00000000
-0.16531802 0.24250032 3.54366804 1.00000000
-0.19731400 -0.92358006 4.37887783 1.00000000
0.08597769 -1.02741353 4.49469589 1.00000000
-0.16784325 0.12344730 3.64201898 1.00000000
-0.20510434 -1.14202129 4.61567062 1.00000000
0.04290259 0.04415358 2.66333422 1.00000000
0.09072007 -1.21609985 4.58366226 1.00000000
-0.18114908 -0.00215021 3.99598369 1.00000000
0.07519244 -0.07223222 4.13480881 1.00000000
-0.18113256 -0.14173813 4.04160651 1.00000000
0.03790214 0.51573639 2.44031990 1.00000000
0.07711138 -0.20941402 4.02597266 1.00000000
-0.12334958 0.55409212 2.66271270 1.00000000
-0.18101781 -0.28784219 4.13017228 1.00000000
-0.13543235 0.51592390 2.98363864 1.00000000
-0.18431582 -0.44530063 4.26091804 1.00000000
-0.15014377 0.46598195 3.37597035 1.00000000
-0.19851068 -0.65171008 4.66650171 1.00000000
0.06741300 0.43570584 3.60456960 1.00000000
0.09911864 -0.72896239 4.64600559 1.00000000
-0.15507407 0.36492968 3.53741682 1.00000000
-0.17116049 -0.70573532 4.03497059 1.00000000
0.09448836 -0.83493786 4.33907766 1.00000000
-0.15378409 0.24281654 3.54817884 1.00000000
-0.18280547 -0.92436462 4.38343370 1.00000000
0.10113649 -1.02821402 4.49830188 1.00000000
-0.15643746 0.12404557 3.65853014 1.00000000
-0.18962075 -1.14197163 4.61634519 1.00000000
0.05162041 0.04413853 2.65917842 1.00000000
0.10610776 -1.21599971 4.58335812 1.00000000
-0.16838504 -0.00210648 4.00855232 1.00000000
0.08841386 -0.07180271 4.11454790 1.00000000
-0.16787768 -0.14183407 4.04618164 1.00000000
0.04469335 0.51239445 2.42455552 1.00000000
0.08899429 -0.20912812 4.02173616 1.00000000
-0.11566998 0.55494908 2.66696812 1.00000000
-0.16912474 -0.28863759 4.14265940 1.00000000
-0.12657433 0.51595241 2.98402262 1.00000000
-0.17145664 -0.44525838 4.26145897 1.00000000
0.11159298 -0.57085344 4.69211949 1.00000000
-0.14002994 0.46601494 3.37640038 1.00000000
-0.18430114 -0.65166293 4.66709073 1.00000000
0.07825954 0.43577713 3.60434190 1.00000000
0.11332944 -0.72886836 4.64569507 1.00000000
-0.14423034 0.36454628 3.53389068 1.00000000
-0.15919342 -0.70777654 4.04729468 1.00000000
0.04857116 0.19960520 2.34673056 1.00000000
0.10798734 -0.83561060 4.34270798 1.00000000
-0.14281329 0.24257286 3.54464149 1.00000000
-0.16865153 -0.92099439 4.36834797 1.00000000
0.06006382 0.13930948 2.73169191 1.00000000
0.11525313 -1.02901879 4.50188262 1.00000000
-0.14547177 0.12436331 3.66698263 1.00000000
-0.16746158 -1.08775933 4.39971190 1.00000000
0.05141643 0.03853479 2.34316846 1.00000000
0.12050859 -1.21590360 4.58302782 1.00000000
0.10124266 -0.07171711 4.11425396 1.00000000
0.05221654 0.51244405 2.42439461 1.00000000
0.10162349 -0.20904357 4.02144134 1.00000000
-0.10742129 0.55497659 2.66730745 1.00000000
-0.15656701 -0.28942884 4.15513641 1.00000000
0.05451497 -0.19780957 2.29096554 1.00000000
-0.11739268 0.51598343 2.98439249 1.00000000
-0.15653139 -0.44020145 4.21426845 1.00000000
0.12605772 -0.57026936 4.68779340 1.00000000
-0.12969537 0.46605030 3.37680811 1.00000000
-0.16996814 -0.65216880 4.67160538 1.00000000
0.08926228 0.43585120 3.60407724 1.00000000
0.12769087 -0.72877108 4.64533813 1.00000000
-0.13333244 0.36416475 3.53033433 1.00000000
-0.14697751 -0.70912130 4.05564813 1.00000000
0.05569715 0.19965269 2.34656836 1.00000000
0.12170106 -0.83780409 4.35414800 1.00000000
-0.13207724 0.24261011 3.54505528 1.00000000
-0.15525155 -0.92094740 4.36885477 1.00000000
0.06785040 0.13852005 2.71552402 1.00000000
0.12926573 -1.03072088 4.50932196 1.00000000
-0.13482927 0.12482229 3.67938904 1.00000000
-0.15403875 -1.08771196 4.40021392 1.00000000
0.05845516 0.03858199 2.34300260 1.00000000
0.13445251 -1.21580832 4.58266531 1.00000000
0.11292779 -0.07129360 4.09394600 1.00000000
0.05977361 0.51588061 2.43985166 1.00000000
0.11349034 -0.20875395 4.01713205 1.00000000
-0.09954602 0.55500410 2.66760729 1.00000000
-0.14445649 -0.29021949 4.16755541 1.00000000
0.06145841 -0.19776259 2.29079397 1.00000000
-0.10843674 0.51601511 2.98472596 1.00000000
-0.14215130 -0.43514436 4.16701776 1.00000000
0.14049813 -0.57016948 4.68739497 1.00000000
-0.11939631 0.46608719 3.37718291 1.00000000
-0.15545978 -0.65211604 4.67211807 1.00000000
0.10021907 0.43543813 3.59980835 1.00000000
0.14223067 -0.72867021 4.64493098 1.00000000
-0.12239327 0.36420425 3.53072637 1.00000000
-0.13477803 -0.71254486 4.07578725 1.00000000
0.06315137 0.20005331 2.35036122 1.00000000
0.13567827 -0.83846911 4.35768160 1.00000000
-0.12091855 0.24265062 3.54545076 1.00000000
-0.14124956 -0.92089602 4.36934058 1.00000000
0.07363298 0.13393053 2.62746089 1.00000000
0.14450031 -1.03510856 4.52838253 1.00000000
-0.12294432 0.12472516 3.67580378 1.00000000
-0.13960120 -1.08669206 4.39682594 1.00000000
0.06600278 0.03863383 2.34280116 1.00000000
0.14948375 -1.21570316 4.58222746 1.00000000
-0.13102971 -0.00197352 4.01394966 1.00000000
0.06852161 0.52101931 2.46307421 1.00000000
-0.09086500 0.55503586 2.66791042 1.00000000
-0.14299106 -0.31995953 4.59479825 1.00000000
0.07941977 0.52541149 2.75599396 1.00000000
-0.09883392 0.51605066 2.98505319 1.00000000
-0.12859609 -0.43509335 4.16746379 1.00000000
0.06875946 0.36903874 2.38577976 1.00000000
0.15537357 -0.56909130 4.67899367 1.00000000
-0.10865786 0.46612740 3.37753997 1.00000000
-0.13408268 -0.61980627 4.44294249 1.00000000
0.15707457 -0.72856485 4.64446962 1.00000000
-0.11129825 0.36424611 3.53108930 1.00000000
-0.12247140 -0.71665949 4.09983100 1.00000000
0.07049165 0.20010463 2.35014805 1.00000000
0.15059512 -0.84446089 4.38864409 1.00000000
-0.10991175 0.24269241 3.54580586 1.00000000
-0.12753427 -0.92084346 4.36977375 1.00000000
0.07920150 0.13018240 2.55536348 1.00000000
0.15950135 -1.04039442 4.55130438 1.00000000
-0.11178066 0.12490845 3.68015847 1.00000000
-0.12596886 -1.08663951 4.39725039 1.00000000
0.07314232 0.03868403 2.34258844 1.00000000
0.16374949 -1.21663532 4.58563326 1.00000000
-0.11887341 -0.00192665 4.01432790 1.00000000
0.07670165 0.52700172 2.49019979 1.00000000
-0.08301629 0.55506584 2.66816007 1.00000000
-0.12925063 -0.31990565 4.59520868 1.00000000
0.08784423 0.52700015 2.76358352 1.00000000
-0.08997185 0.51608491 2.98532747 1.00000000
-0.11582106 -0.43420905 4.15988395 1.00000000
0.07587445 0.36908937 2.38555632 1.00000000
0.16940248 -0.56850322 4.67454613 1.00000000
-0.09853875 0.46616695 3.37784486 1.00000000
-0.12630749 -0.65255862 4.67697556 1.00000000
0.17127923 -0.72846171 4.64398368 1.00000000
-0.10072447 0.36470690 3.53538174 1.00000000
-0.11034953 -0.72007922 4.11988774 1.00000000
0.07762789 0.20015567 2.34991894 1.00000000
0.16648921 -0.85577909 4.44703512 1.00000000
-0.09899677 0.24245552 3.54213313 1.00000000
-0.11389505 -0.91995832 4.36624770 1.00000000
0.08611117 0.12896979 2.53115719 1.00000000
0.17446443 -1.04477937 4.57028278 1.00000000
-0.10045502 0.12495355 3.68048364 1.00000000
-0.11212422 -1.08561722 4.39375652 1.00000000
0.17799669 -1.21549670 4.58126312 1.00000000
-0.09843461 -0.00193430 3.67877202 1.00000000
-0.12032368 -0.16451969 4.70773328 1.00000000
0.08487683 0.52959990 2.50165684 1.00000000
0.08258116 -0.12023695 2.31557471 1.00000000
-0.07473638 0.55509881 2.66839782 1.00000000
-0.11478209 -0.31984663 4.59559701 1.00000000
0.09688484 0.52935881 2.77505482 1.00000000
0.18210116 -0.40719163 4.69899819 1.00000000
-0.08059798 0.51542700 2.98164822 1.00000000
-0.10287268 -0.43499021 4.16818852 1.00000000
0.18366295 -0.56693817 4.66210021 1.00000000
-0.08792685 0.46565237 3.37416934 1.00000000
-0.11144304 -0.65194170 4.67339947 1.00000000
0.18596726 -0.72835267 4.64343555 1.00000000
-0.08978038 0.36517092 3.53965108 1.00000000
-0.09746952 -0.72141312 4.12810271 1.00000000
0.08496777 0.20020935 2.34966048 1.00000000
0.18379452 -0.87013348 4.52104773 1.00000000
-0.08792311 0.24250111 3.54242224 1.00000000
-0.09996706 -0.91906992 4.36268736 1.00000000
0.09369862 0.12860484 2.52289066 1.00000000
0.18931397 -1.04646626 4.57751946 1.00000000
-0.08926613 0.12556267 3.69676492 1.00000000
-0.09800766 -1.08362486 4.38634294 1.00000000
0.18616949 0.08087818 4.67563087 1.00000000
0.19256865 -1.21538767 4.58070279 1.00000000
-0.08664508 -0.00188846 3.66706564 1.00000000
-0.10552763 -0.16445725 4.70809044 1.00000000
0.09312387 0.53219996 2.51308674 1.00000000
0.08969113 -0.11997600 2.31131536 1.00000000
-0.06645512 0.55513313 2.66860962 1.00000000
-0.10038766 -0.32006351 4.59992978 1.00000000
0.10550404 0.52942306 2.77472804 1.00000000
0.19655554 -0.40638725 4.69044843 1.00000000
-0.07132749 0.51546582 2.98187781 1.00000000
-0.09017515 -0.43743845 4.19236310 1.00000000
0.19802483 -0.56585646 4.65357742 1.00000000
-0.07741750 0.46569684 3.37442068 1.00000000
-0.09660028 -0.65132251 4.66977706 1.00000000
0.20047228 -0.72761789 4.63889502 1.00000000
-0.07873464 0.36521798 3.53990901 1.00000000
-0.08475034 -0.72482610 4.14809391 1.00000000
0.09213059 0.19991327 2.34539821 1.00000000
0.19684871 -0.86469812 4.49300395 1.00000000
-0.07692348 0.24282831 3.54666572 1.00000000
-0.08606078 -0.91817921 4.35908261 1.00000000
0.10087944 0.12781745 2.50662031 1.00000000
0.20421123 -1.04815037 4.58470800 1.00000000
-0.07797632 0.12617410 3.71301203 1.00000000
-0.08400516 -1.08259754 4.38276703 1.00000000
0.19973668 0.08055715 4.65105093 1.00000000
0.20713651 -1.21527626 4.58009654 1.00000000
-0.09072936 -0.16439237 4.70840090 1.00000000
0.10074618 0.53141140 2.50886818 1.00000000
-0.05836216 0.55433523 2.66487862 1.00000000
-0.08664924 -0.32028097 4.60420460 1.00000000
0.11393554 0.53101566 2.78224149 1.00000000
0.20999449 -0.40593604 4.68588606 1.00000000
-0.06285747 0.51480694 2.97812223 1.00000000
-0.07878064 -0.43989033 4.21647110 1.00000000
0.13106832 0.48795589 3.13061178 1.00000000
0.21027117 -0.56478889 4.64510330 1.00000000
-0.06848155 0.46517815 3.37064657 1.00000000
-0.08425515 -0.65015649 4.66209966 1.00000000
0.09922943 0.28839043 2.40417901 1.00000000
0.21216466 -0.72752747 4.63838922 1.00000000
-0.07017140 0.36567490 3.54406434 1.00000000
0.09744024 0.19960412 2.34119182 1.00000000
0.19452449 -0.81364046 4.22975280 1.00000000
-0.06914871 0.24370310 3.55879648 1.00000000
-0.07628176 -0.91730514 4.35536103 1.00000000
0.10608451 0.12764695 2.50240544 1.00000000
0.21360723 -1.04627966 4.57649274 1.00000000
-0.07098342 0.12761226 3.75313349 1.00000000
-0.07502463 -1.08159080 4.37905782 1.00000000
0.20865937 0.08055575 4.64665452 1.00000000
0.21582119 -1.21417424 4.57584513 1.00000000
-0.06780930 -0.00181485 3.63545681 1.00000000
-0.08286773 -0.16435693 4.70854728 1.00000000
0.10463850 0.53144136 2.50870247 1.00000000
-0.05390583 0.55352224 2.66105508 1.00000000
-0.07877968 -0.32052324 4.60833900 1.00000000
0.11879644 0.53105325 2.78203107 1.00000000
0.21814152 -0.40517689 4.67754097 1.00000000
-0.05729906 0.51413603 2.97429022 1.00000000
-0.07078664 -0.44068816 4.22457432 1.00000000
0.13715636 0.48800323 3.13034337 1.00000000
0.21946830 -0.56423018 4.64071147 1.00000000
-0.06159115 0.46520920 3.37077514 1.00000000
-0.07425029 -0.64899968 4.65435248 1.00000000
0.10400150 0.28745043 2.39602534 1.00000000
0.22228090 -0.72682318 4.63397252 1.00000000
-0.06222328 0.36571090 3.54420904 1.00000000
0.10253636 0.19894444 2.33299384 1.00000000
0.20578741 -0.81736367 4.24889330 1.00000000
-0.06078956 0.24542193 3.58289070 1.00000000
-0.06517544 -0.91559308 4.34772528 1.00000000
0.11185564 0.12706092 2.49015636 1.00000000
0.22543682 -1.04528747 4.57204419 1.00000000
-0.06127968 0.12821947 3.76929482 1.00000000
-0.06297480 -1.07960210 4.37149740 1.00000000
0.22180176 0.08080102 4.65405221 1.00000000
0.22878432 -1.21407182 4.57524259 1.00000000
-0.05818655 -0.00175510 3.69163013 1.00000000
-0.06852981 -0.16429052 4.70878016 1.00000000
0.11242166 0.53150222 2.50835295 1.00000000
-0.04567694 0.55355970 2.66120129 1.00000000
-0.06439103 -0.32073418 4.61255720 1.00000000
0.12737754 0.53112073 2.78163829 1.00000000
0.23254557 -0.40471461 4.67286744 1.00000000
-0.04814766 0.51417809 2.97444504 1.00000000
-0.05779834 -0.44229560 4.24069241 1.00000000
0.14676076 0.48807916 3.12989606 1.00000000
0.23347226 -0.56314535 4.63209122 1.00000000
-0.05122768 0.46469951 3.36698085 1.00000000
-0.05978026 -0.64837623 4.65060902 1.00000000
0.11131525 0.28750800 2.39568968 1.00000000
0.23660555 -0.72670869 4.63328134 1.00000000
-0.05496612 0.39844533 3.85463988 1.00000000
0.10941445 0.19864907 2.32868800 1.00000000
0.21991339 -0.82106253 4.26786741 1.00000000
-0.05024192 0.24743247 3.61098438 1.00000000
-0.05180372 -0.91469928 4.34400497 1.00000000
0.11958434 0.12733241 2.49379313 1.00000000
0.23942192 -1.04517515 4.57135898 1.00000000
-0.05041986 0.12995941 3.81742861 1.00000000
-0.04960347 -1.07857212 4.36780391 1.00000000
0.24270306 -1.21395974 4.57455519 1.00000000
-0.04740048 -0.00169614 3.71978647 1.00000000
